1.254629492759704590e-01 4.938271269202232361e-02 5.925925374031066895e-01
1.502007842063903809e-01 2.334671765565872192e-01 5.140561461448669434e-01
2.426751554012298584e-01 5.254069566726684570e-01 8.152866363525390625e-01
4.245993294401388312e+02 1.159793786011216071e+03 4.204428316184201435e+02
2.177215069532394409e-01 9.901545941829681396e-02 8.101264834403991699e-01
2.238937914371490479e-01 3.272369801998138428e-01 5.663716793060302734e-01
1.858585774898529053e-01 1.418630778789520264e-01 6.464646458625793457e-01
2.442952841520309448e-01 2.266964763402938843e-01 8.590602874755859375e-01
1.885350197553634644e-01 1.381457746028900146e-01 8.152865767478942871e-01
2.097142636775970459e-01 1.869206279516220093e-01 7.314285039901733398e-01
1.666666567325592041e-01 7.977208122611045837e-03 8.205127716064453125e-01
1.061538383364677429e-01 2.516239285469055176e-01 4.923076629638671875e-01
3.007752001285552979e-01 2.232558131217956543e-01 9.922480583190917969e-01
2.940689250320102088e-01 2.675189002012467454e-01 9.913044897133902467e-01
2.141151891796598261e-01 3.229507970081210155e-01 6.040997062785126159e-01
2.077104943368283663e-01 4.573097562383491299e-01 7.690252814892890587e-01
4.620340325087889388e-01 3.446480933751395193e-01 6.632821083721633926e-01
-2.416286722933084774e-01 -4.738142514660678706e-01 1.678842857239896402e-01
1.781141094765611999e-01 1.945834100426114266e-01 6.368215976094736552e-01
1.846590638160705566e-01 2.272726893424987793e-01 7.272726297378540039e-01
1.786363571882247925e-01 2.820201814174652100e-01 5.818181633949279785e-01
1.312757134437561035e-01 1.631458550691604614e-01 5.267489552497863770e-01
2.986486256122589111e-01 4.516516029834747314e-01 8.648647665977478027e-01
2.741935551166534424e-01 1.338112354278564453e-02 6.881720423698425293e-01
1.142118945717811584e-01 1.653746813535690308e-01 3.307493627071380615e-01
3.468749821186065674e-01 9.444443136453628540e-02 9.999998807907104492e-01
3.842105269432067871e-01 1.764411181211471558e-01 9.624060392379760742e-01
3.542483747005462646e-01 3.753086328506469727e-01 8.366013169288635254e-01
2.664515972137451172e-01 1.915412098169326782e-01 8.258064389228820801e-01
1.210526227946865235e-01 1.734592765567894157e-01 5.182185769077800597e-01
1.261306256057884989e-01 3.662757277480800933e-01 6.432159543036429783e-01
2.159090638158649156e-01 2.393939197063038871e-01 7.272726297378634408e-01
2.362069040537288223e-01 1.828863471746634550e-01 7.356322407722531986e-01
1.167286187410354614e-01 1.553077250719070435e-01 4.758364260196685791e-01
1.984536051750183105e-01 1.786941587924957275e-01 6.597937941551208496e-01
3.054053783416748047e-01 4.420420229434967041e-01 8.648647665977478027e-01
2.376848573882573987e+02 3.327786646684055540e+02 1.644067714572105672e+02
1.935332559539579278e-01 1.660962751184616171e-01 6.664040748052707519e-01
4.359712600708007812e-01 3.159072995185852051e-01 9.208633899688720703e-01
1.120857473344873324e+04 8.142664899536126541e+03 -1.951518271147903306e+03
1.127507792314561084e+04 8.288871958218480358e+03 -1.941773433007241465e+03
3.376542627811431885e-01 1.262002587318420410e-01 7.901233434677124023e-01
1.595091968774795532e-01 5.158827304840087891e-01 7.852760553359985352e-01
-7.405064434178522788e+03 5.963723973484532507e+03 -1.161351342926995312e+04
1.453239499431044468e+00 3.528231669738949083e+00 -1.097903979218011727e+01
-7.285656087985611521e+05 2.110566512289125007e+06 4.358382918991972692e+05
1.843478083588747929e-01 1.623188108205979863e-01 5.565216541290283203e-01
2.689655125141143799e-01 3.555555343627929688e-01 8.827585577964782715e-01
1.235294118523597717e-01 5.228758454322814941e-01 8.366013169288635254e-01
1.999999880790710449e-01 3.829059600830078125e-01 9.846153259277343750e-01
7.699194504088173620e+06 1.010132148056206480e+07 -9.720850330678152386e+05
3.107821961189707882e-01 5.941947083929021156e-01 9.693017065438170876e-01
3.464516103267669678e-01 2.718279659748077393e-01 8.258064389228820801e-01
-5.249948422165965667e+02 -1.816166400421600429e+02 2.603526182252021499e+02
-3.717693090429305869e+01 -3.853903093369650890e+01 5.696426704834208010e+01
-8.267884177895471964e+01 -2.334879698236166234e+02 3.990098137200914721e+02
1.352388910957729444e+07 8.071550677089616656e+06 -6.506805760143625550e+06
1.356002439826675318e+07 8.249977836587526836e+06 -5.750472391003821976e+06
1.599999964237213135e-01 2.048677206039428711e-01 6.095238327980041504e-01
1.145593747496604919e-01 2.527032792568206787e-01 4.904214143753051758e-01
3.059459328651428223e-01 2.613813579082489014e-01 6.918918490409851074e-01
1.158995702862739563e-01 2.796838283538818359e-01 5.355647802352905273e-01
1.035031750798225403e-01 8.888888359069824219e-02 4.076432883739471436e-01
1.038596481084823608e-01 1.347368359565734863e-01 4.491227865219116211e-01
1.041044741868972778e-01 1.333333253860473633e-01 4.776119291782379150e-01
2.740457355976104736e-01 5.360473394393920898e-01 9.770990014076232910e-01
-2.770975238421875000e+09 1.840931134167730570e+09 3.162737303536119461e+09
4.547186225067725296e-01 -1.170989785126878013e-01 6.898604820688765127e-01
-7.166763608458864689e+08 -1.668920878874652863e+09 -7.612945446708715439e+09
1.844961196184158325e-01 2.439276576042175293e-01 9.922480583190917969e-01
1.841726452112197876e-01 2.263788729906082153e-01 9.208632111549377441e-01
1.854014396667480469e-01 6.488239858299493790e-03 9.343065023422241211e-01
2.584210634231567383e-01 1.300584822893142700e-01 6.736842393875122070e-01
1.460732966661453247e-01 1.210005804896354675e-01 6.701570749282836914e-01
1.445651948451995850e-01 1.342995017766952515e-01 6.956520676612854004e-01
1.367441713809967041e-01 1.165891364216804504e-01 5.953487753868103027e-01
7.894454748663348731e-01 -3.053771750441510946e+00 1.661682249228571828e-01
-9.490276728939392567e+08 -5.291881358722857833e+08 3.990117641523973942e+09
2.191147647444863319e+09 -7.371298209430034637e+09 2.689144145182911873e+09
-1.013813520438963175e+07 -1.122404319923184440e+07 7.722459218384568579e+06
